x,y,z
1.818053713529739657e+00,1.488478207070441650e-01,9.542307280978127082e+00
1.892322650714057808e+00,1.503716554901928515e-01,9.639996986324007366e+00
1.925522858376710111e+00,1.486381682143431970e-01,9.528866919553466985e+00
1.982392235875038544e+00,1.487773427203672449e-01,9.537789091848980050e+00
2.074108700473054512e+00,1.514535646577391259e-01,9.709355809837807882e+00
2.152508143091343307e+00,1.530421001486047261e-01,9.811193335631436696e+00
2.209720117812607132e+00,1.530813814826409158e-01,9.813711575791080222e+00
2.209982467480415380e+00,1.492720672116051583e-01,9.569504793781284491e+00
2.345564794762025951e+00,1.545657580259358621e-01,9.908871699933403221e+00
2.376991388428915997e+00,1.529072325733548954e-01,9.802547271220406699e+00
2.446893834385210909e+00,1.537433646544058286e-01,9.856149864842352670e+00
2.495486256971172434e+00,1.532329689396420003e-01,9.823429515145351232e+00
2.560649406418588736e+00,1.537401559312635835e-01,9.855944160640184748e+00
2.644016929949532191e+00,1.552945126837483036e-01,9.955590562488850992e+00
2.706257731022438495e+00,1.555682644589924113e-01,9.973140188312623167e+00
2.791443789123778441e+00,1.571221306952121921e-01,1.007275514423951535e+01
2.887488552791950713e+00,1.592113047409236815e-01,1.020668750961058535e+01
2.926449173585598640e+00,1.581323378474945585e-01,1.013751730883642033e+01
2.990174959291567180e+00,1.584076438776881590e-01,1.015516657453567539e+01
3.066635901423703459e+00,1.593340452406159513e-01,1.021455613380891769e+01
3.126208218495440505e+00,1.593645574801236531e-01,1.021651220655375347e+01
3.170247304331533567e+00,1.586167665407074434e-01,1.016857296974164804e+01
3.294646318899590920e+00,1.618437082202304478e-01,1.037544512237066385e+01
3.367963117390047056e+00,1.624908872817658334e-01,1.041693435238861731e+01
3.376068711416404966e+00,1.600243720329980468e-01,1.025881147020491824e+01
3.537240483635042398e+00,1.647730966152968490e-01,1.056324178663000346e+01
3.548202271503595906e+00,1.624823038025648703e-01,1.041638408436530128e+01
-3.524972076580529912e+00,2.081681549213459659e-01,1.000890283917876999e+01
-3.391633069064192707e+00,2.036320144384189956e-01,9.790801327083242356e+00
-3.263819827684040220e+00,1.992794939407879495e-01,9.581528420846534999e+00
-3.206131557360891726e+00,1.991323376914754528e-01,9.574453022584474837e+00
-3.146804754259630688e+00,1.988764636248898932e-01,9.562150378731537614e+00
-3.119412453851299283e+00,2.006657356417782812e-01,9.648180106845638093e+00
-3.016231441145915237e+00,1.975560890952928472e-01,9.498665642638947304e+00
-2.984311178000046638e+00,1.990851160660344066e-01,9.572182566466313602e+00
-2.907953518038012053e+00,1.976514649421657888e-01,9.503251394887730186e+00
-2.875647125741650711e+00,1.992143851687776246e-01,9.578397935430666976e+00
-2.846017615441246207e+00,2.010276772135791146e-01,9.665582567020120308e+00
-2.738345040622347515e+00,1.972906993750611071e-01,9.485905478024335480e+00
-2.767815527480748550e+00,2.034836448610035931e-01,9.783667590968793348e+00
-2.758940376759632773e+00,2.070568127487869836e-01,9.955468557501884419e+00
-2.570537412332562610e+00,1.970219068590110256e-01,9.472981704077930942e+00
-2.528407532641283595e+00,1.980056991818334999e-01,9.520283279944713684e+00
-2.508922558366131206e+00,2.008460012140216577e-01,9.656847429657403836e+00
-2.460573766521063188e+00,2.014522673945147169e-01,9.685997225876368688e+00
-2.416149231349364435e+00,2.024154908097404448e-01,9.732309831082764262e+00
-2.354391024106006203e+00,2.019378601280460150e-01,9.709344939608866909e+00
-2.319324481929385229e+00,2.037821323933468043e-01,9.798019126683072955e+00
-2.281472336371722420e+00,2.054677488457288259e-01,9.879065006646737146e+00
-2.255860344139492213e+00,2.083704116366375814e-01,1.001862751494721415e+01
-2.220123890551032986e+00,2.104660549232914846e-01,1.011938783561019584e+01
-2.176832331160459599e+00,2.119394006953595477e-01,1.019022755980680017e+01
-1.166242543779503066e-01,2.100619203295467918e-01,1.009995669887235081e+01
-5.649995978345124376e-02,2.035338208841378504e-01,9.786080097053583060e+00
0.000000000000000000e+00,2.037643030000825251e-01,9.797161874213639265e+00
5.483212556801891902e-02,1.975256631479324065e-01,9.497202737080526092e+00
1.084585758658005855e-01,1.953540182880295073e-01,9.392788195806513585e+00
1.608461560407795088e-01,1.931425133692154239e-01,9.286457148826059438e+00
2.143871299211412285e-01,1.930754989405080446e-01,9.283235037807163081e+00
2.638528820872548253e-01,1.900991981174485479e-01,9.140131949972110093e+00
3.204295249921585986e-01,1.923843420883451782e-01,9.250003625526334261e+00
3.682859703101681870e-01,1.895289609877511827e-01,9.112714461314492809e+00
4.056296234911536125e-01,1.826535528728160385e-01,8.782138961771403629e+00
4.562350843250388976e-01,1.826142301496535003e-01,8.780248291627094304e+00
5.013999193253946274e-01,1.806228566576553174e-01,8.684501351825197446e+00
5.664959373581743840e-01,1.855207799145789926e-01,8.919997688961037952e+00
6.158657431945741001e-01,1.848814116335524005e-01,8.889256315451406820e+00
6.601334938114742368e-01,1.829266003074740965e-01,8.795267315841757139e+00
7.023237861007894933e-01,1.807164923287211122e-01,8.689003434933601611e+00
7.629199750761560539e-01,1.832213900696882392e-01,8.809441059607227231e+00
8.303662840857967131e-01,1.869554677351820959e-01,8.988978705804825609e+00
8.816428003268446112e-01,1.868237954538828072e-01,8.982647789961163198e+00
9.388629313230197893e-01,1.878962593081213717e-01,9.034212768858443710e+00
9.953024271197606909e-01,1.887078249849208078e-01,9.073233540358133453e+00
1.054908790676129859e+00,1.900086457348824365e-01,9.135778114010491890e+00
1.094096408680035104e+00,1.876829169670489184e-01,9.023955086726015651e+00
1.179450490440617338e+00,1.931281059821872426e-01,9.285764429341726967e+00
1.214769996674498476e+00,1.902631434461660442e-01,9.148014581523947086e+00
1.247829912313691114e+00,1.872977659631253067e-01,9.005436697214708630e+00
1.353922244729992119e+00,1.950932133092511123e-01,9.380248469480200413e+00
1.393283644317919068e+00,1.930432576958988067e-01,9.281684851205231013e+00
1.451599743930045427e+00,1.936741085394509676e-01,9.312016699040041701e+00
1.536077985735849971e+00,1.976258180480540416e-01,9.502018270294835034e+00
1.578010332001081428e+00,1.960199578156646416e-01,9.424807137567260185e+00
1.614221183007465976e+00,1.938341232978211259e-01,9.319710345409568220e+00
1.691467227809709373e+00,1.965578263360606148e-01,9.450668315819669374e+00
1.789928693000696125e+00,2.014996047081749619e-01,9.688273244383003302e+00
1.822725839994099317e+00,1.989737831619902420e-01,9.566829585267999647e+00
1.857690033863610646e+00,1.968261425004484144e-01,9.463569186370946795e+00
1.922666523067273481e+00,1.978902362943535942e-01,9.514731725612332269e+00
2.011379932958568428e+00,2.012704692248128702e-01,9.677256214468673789e+00
2.067811486066183591e+00,2.013249807228920940e-01,9.679877173894956499e+00
2.148332718689160092e+00,2.036603064763711779e-01,9.792161632453161957e+00
2.226854580561161701e+00,2.056911930793570709e-01,9.889808396408753310e+00
2.270779182054754930e+00,2.045047311003279078e-01,9.832762290221332080e+00
2.300373551498544611e+00,2.021170523046728618e-01,9.717960652641806973e+00
2.407165759598075105e+00,2.064643882387020291e-01,9.926984280628561308e+00
2.470405695591201045e+00,2.069608842385143588e-01,9.950856232724405004e+00
2.512497766729480997e+00,2.057033927688083630e-01,9.890394967906360080e+00
2.574059081489536549e+00,2.060603551440370051e-01,9.907558024053232160e+00
2.665348760811751649e+00,2.087298974294106435e-01,1.003591189916674153e+01
2.704716381559676197e+00,2.073062140434428213e-01,9.967459984947254270e+00
2.798960201528450487e+00,2.100602764818919055e-01,1.009987766127187570e+01
2.896174101879522400e+00,2.129202819159297377e-01,1.023738916738876448e+01
2.953781109585365883e+00,2.128123126435876589e-01,1.023219791247805510e+01
3.006102370042302852e+00,2.123352201466072453e-01,1.020925889738526848e+01
3.059158176896682679e+00,2.119273640667351244e-01,1.018964882841314079e+01
3.145570963973959078e+00,2.138021482298213816e-01,1.027979005361567566e+01
3.180719228333721560e+00,2.121876101307410001e-01,1.020216168163940651e+01
3.314173916367790795e+00,2.170706228201461918e-01,1.043694110594280211e+01
3.379174865442031273e+00,2.173757463200973461e-01,1.045161170465236466e+01
3.407336391595342295e+00,2.153419308978726798e-01,1.035382412056410040e+01
3.490131994180047492e+00,2.167715611223911820e-01,1.042256196386470357e+01
-3.376522303599680086e+00,2.577009805480699467e-01,9.912386750379917899e+00
-3.256801304046887502e+00,2.528492848268131254e-01,9.725767808216870591e+00
-3.217038736999228377e+00,2.541440196172963240e-01,9.775569372631359499e+00
-3.159824606969575012e+00,2.540817135586330155e-01,9.773172789781542136e+00
-3.096604699321920506e+00,2.535254363801940913e-01,9.751775763967478028e+00
-3.035949704917791703e+00,2.531624398914274487e-01,9.737813218780290825e+00
-2.939235555008965495e+00,2.497221025258956062e-01,9.605481729600823471e+00
-2.878938837401653128e+00,2.493030287415607393e-01,9.589362188967188061e+00
-2.869081364291737657e+00,2.533209735206229385e-01,9.743911164710432615e+00
-2.854377652331153037e+00,2.570631873243465204e-01,9.887854235653460222e+00
-2.694132595444546308e+00,2.475832993640980084e-01,9.523213342117065494e+00
-2.674136559098258203e+00,2.508654216697002726e-01,9.649459139032494193e+00
-2.629049516581445367e+00,2.518832961244525936e-01,9.688611358156297371e+00
-2.617631169593535478e+00,2.562412720478668415e-01,9.856239524373801686e+00
-2.594485040442673807e+00,2.596193851444829059e-01,9.986177576720233873e+00
-2.447672835153301474e+00,2.504950517998277837e-01,9.635212979071999584e+00
-2.440309434524568832e+00,2.555494221486204198e-01,9.829627736712161834e+00
-2.421489633423242527e+00,2.596161968684728150e-01,9.986054940691408532e+00
-2.380511430761395708e+00,2.614477293533694624e-01,1.005650425872492448e+01
-2.345531509123121250e+00,2.640460895269274300e-01,1.015644936138737364e+01
-2.269784026707883040e+00,2.620706514479498317e-01,1.008046476017007009e+01
-1.149991552816707341e-01,2.589185191750169035e-01,9.959218988767826630e+00
-5.724272497610272820e-02,2.577619209124324406e-01,9.914730802230188544e+00
0.000000000000000000e+00,2.489414408235653131e-01,9.575453824009427350e+00
5.544680410070305931e-02,2.496749541434148678e-01,9.603668181973608498e+00
1.109362856791589746e-01,2.497710417130568072e-01,9.607364159963950101e+00
1.646408861411990110e-01,2.471239858584492188e-01,9.505545993323977427e+00
2.124416646648583651e-01,2.391542837483245920e-01,9.198993921101115134e+00
2.700272844555113294e-01,2.431846197716046598e-01,9.354019522135986975e+00
3.097577585950140877e-01,2.324713312370347007e-01,8.941936265420324048e+00
3.676145768029499550e-01,2.364793068506529095e-01,9.096101780366295131e+00
4.060266813206462322e-01,2.285404332223041346e-01,8.790735515949206658e+00
4.614496422948742294e-01,2.308767839094885976e-01,8.880602506546738439e+00
5.092490216285681104e-01,2.293129932101522495e-01,8.820451791654221552e+00
5.553183916326995817e-01,2.273253308687683549e-01,8.743996988047886276e+00
6.214560896224310405e-01,2.331995251953859205e-01,8.969946015826069541e+00
6.784055380105535882e-01,2.349873545680792319e-01,9.038714307464445596e+00
7.107834792373965982e-01,2.286165934342870298e-01,8.793664994426780623e+00
7.709990610724639648e-01,2.314520597294954241e-01,8.902730309102716788e+00
8.292666259077834390e-01,2.333848521054399661e-01,8.977074556834340413e+00
8.877299378025340637e-01,2.351421066684047101e-01,9.044666798082049652e+00
9.598013101885541909e-01,2.401083665233868514e-01,9.235692413431953796e+00
1.017427715581022518e+00,2.411284324934751810e-01,9.274928928500358438e+00
1.054809993055963568e+00,2.374885630630278466e-01,9.134922501521517191e+00
1.092646533365650985e+00,2.342927540126535646e-01,9.011996716682428854e+00
1.147270301827123085e+00,2.348234858492351251e-01,9.032411148997537609e+00
1.220274631710314139e+00,2.389066324617051262e-01,9.189468092650713515e+00
1.268501455197321270e+00,2.380006745459641304e-01,9.154620707820068759e+00
1.334421894362910033e+00,2.403541417304545791e-01,9.245146079075478696e+00
1.394211487532312166e+00,2.414647661370859788e-01,9.287865895777487779e+00
1.448993109818350833e+00,2.416579105202363020e-01,9.295295133417088351e+00
1.527923091706342884e+00,2.457208013826256421e-01,9.451572946046812973e+00
1.577338350492183627e+00,2.449206055992858011e-01,9.420793668204646920e+00
1.659958666355295875e+00,2.491577952503171711e-01,9.583775828638824379e+00
1.684117565577614162e+00,2.446296937814174954e-01,9.409603837095607659e+00
1.733468043748958687e+00,2.439294976914009871e-01,9.382671015844456619e+00
1.788632082747325436e+00,2.440650181586671574e-01,9.387883767776084909e+00
1.891223570255995634e+00,2.504738634768542416e-01,9.634397976927036922e+00
1.917751817563685401e+00,2.467304884768654061e-01,9.490410240936752118e+00
2.031282976846382038e+00,2.540776056148186801e-01,9.773014779021357512e+00
2.077549679950774220e+00,2.528413809028147718e-01,9.725463786278922385e+00
2.121499492253418051e+00,2.513956712937769344e-01,9.669855023196042509e+00
2.172184477460180396e+00,2.508017478203786177e-01,9.647009944547399130e+00
2.264419464130486670e+00,2.549149743785983357e-01,9.805223903804735741e+00
2.310038081436233348e+00,2.537077551096426076e-01,9.758788596259726944e+00
2.382542077110132883e+00,2.554404959661172314e-01,9.825437925536752104e+00
2.474336871136034510e+00,2.591127783526475103e-01,9.966691106624692154e+00
2.581391404949797685e+00,2.641798219156322181e-01,1.016159333544240084e+01
2.617832249399314914e+00,2.619556437621578526e-01,1.007604102589318806e+01
2.682590955726883664e+00,2.626002191845450140e-01,1.010083441574720808e+01
2.718032527420975786e+00,2.604085574129820224e-01,1.001653283854889054e+01
2.826141945561909008e+00,2.651253124899837221e-01,1.019796133148913064e+01
2.877505947202998016e+00,2.644348008531401395e-01,1.017140101966775489e+01
2.937219966840946217e+00,2.645239062645404760e-01,1.017482843114858504e+01
3.006404328564984407e+00,2.654456861305157789e-01,1.021028440229323486e+01
3.043026155837625701e+00,2.635122453225872685e-01,1.013591521283033714e+01
3.121305522384206110e+00,2.651910549826944075e-01,1.020049009568822918e+01
3.226252709758994808e+00,2.690314685997188260e-01,1.034821039140619803e+01
3.277386159008299327e+00,2.683263886833647249e-01,1.032108971531888386e+01
3.346822701178250092e+00,2.691182431507948003e-01,1.035154814708150184e+01
3.437621123427542003e+00,2.715698882271218029e-01,1.044584989990965873e+01
3.499505002941664777e+00,2.716921465679060232e-01,1.045055252833868487e+01
-3.242753676506449523e+00,3.074105802324925696e-01,9.853708989719196509e+00
-3.213687082156147845e+00,3.100953586630537107e-01,9.939766617718261088e+00
-3.162182231958750034e+00,3.106732856589370928e-01,9.958291433716560448e+00
-3.083022812946948576e+00,3.085053390583950006e-01,9.888800283181545581e+00
-2.995174362716745975e+00,3.053697025464855996e-01,9.788290893873845988e+00
-2.978987804098305325e+00,3.095601778672724680e-01,9.922611984281356712e+00
-2.847888601750597992e+00,3.017397507310523030e-01,9.671936769663380673e+00
-2.830908930420942493e+00,3.059395334396501909e-01,9.806556198179080752e+00
-2.745323535058029840e+00,3.027451253650368379e-01,9.704162950887971206e+00
-2.663005737793016969e+00,2.997854638562889029e-01,9.609294247301976455e+00
-2.613343640726320416e+00,3.004542619591078489e-01,9.630731836968115189e+00
-2.609874131312757584e+00,3.065783178596150349e-01,9.827031732159531074e+00
-2.610845828204402252e+00,3.135078497934897790e-01,1.004915027817615503e+01
-2.514233048327808806e+00,3.087681957976713409e-01,9.897225867664866783e+00
-2.463965809146028807e+00,3.096320637766494799e-01,9.924916208263910633e+00
-2.468271251048204551e+00,3.175581771775864426e-01,1.017897908018353803e+01
-2.440971673485640814e+00,3.217055763069841534e-01,1.031191941052087380e+01
-1.171603698964145540e-01,3.165413457719044033e-01,1.014638566470766179e+01
-5.642154519333757168e-02,3.048770136492366944e-01,9.772498291640426160e+00
0.000000000000000000e+00,3.008262085687477549e-01,9.642654177599112586e+00
5.645761717814388320e-02,3.050719306612834636e-01,9.778746142681864484e+00
1.098569212951435864e-01,2.968090467780873931e-01,9.513888462314202599e+00
1.618330258247899500e-01,2.914913056363668820e-01,9.343434102371412919e+00
2.142634426604193287e-01,2.894461606318554092e-01,9.277879222311678831e+00
2.623470479479836359e-01,2.835214251718829459e-01,9.087968325232321121e+00
3.136221115941192905e-01,2.824458058517020365e-01,9.053490527634181717e+00
3.574623969385021249e-01,2.759383284145491833e-01,8.844900475611989776e+00
4.081070006692043561e-01,2.756536602884154807e-01,8.835775751045098048e+00
4.551722626895634005e-01,2.732832322381590906e-01,8.759794279715682919e+00
5.145649474456968075e-01,2.780480824625576330e-01,8.912526327699561435e+00
5.691745163952965925e-01,2.795969747327484156e-01,8.962174370637260523e+00
6.051454220597680678e-01,2.724947956034749486e-01,8.734521808126919140e+00
6.780105280222160635e-01,2.818206363405634796e-01,9.033451404623694003e+00
7.252476888107678432e-01,2.799226389277915117e-01,8.972613179229661284e+00
7.840255502361848094e-01,2.824350964531107122e-01,9.053147249608116454e+00
8.160336714157248039e-01,2.755927588542746443e-01,8.833823622368763395e+00
8.942895089980985590e-01,2.842555288440099526e-01,9.111499213297243216e+00
9.451044402777034614e-01,2.837180749059394769e-01,9.094271716777377890e+00
9.990898629543341070e-01,2.841388755800389743e-01,9.107760020862807337e+00
1.053043797081537836e+00,2.845090886787539075e-01,9.119626795702373556e+00
1.092460000153481214e+00,2.811033075403186476e-01,9.010458216678728149e+00
1.199842187163377316e+00,2.947006902313736854e-01,9.446307405597890394e+00
1.235966893916710774e+00,2.903746557896741964e-01,9.307641116247113544e+00
1.277300399008767018e+00,2.875818757476732435e-01,9.218121615046600326e+00
1.355420283893103095e+00,2.929636095409354768e-01,9.390627189249144635e+00
1.432444906459012124e+00,2.977037364291856836e-01,9.542566757808678801e+00
1.444385115460535829e+00,2.890672867581660643e-01,9.265734835829213978e+00
1.533014663759600715e+00,2.958475544391263590e-01,9.483068879927671446e+00
1.572647014953621358e+00,2.930305923338484275e-01,9.392774249211049309e+00
1.611578626314299933e+00,2.902752114569058239e-01,9.304453537228084770e+00
1.711050541623706067e+00,2.982502732094295950e-01,9.560085394872597675e+00
1.752522423545718855e+00,2.959329416033930626e-01,9.485805871827901470e+00
1.828886729949926515e+00,2.994694843691436126e-01,9.599165871399312877e+00
1.909650262179918512e+00,3.034971559664182417e-01,9.728268467008371445e+00
1.912940794549726764e+00,2.953338251658750302e-01,9.466601851518010591e+00
2.035331656109673926e+00,3.055008286157649411e-01,9.792493996209058693e+00
2.077139231218291915e+00,3.033497143006012031e-01,9.723542386120648473e+00
2.156752915891950284e+00,3.066878021429387258e-01,9.830541130782062709e+00
2.222168657713812667e+00,3.078875421987756211e-01,9.868997482429378465e+00
2.261956029212704777e+00,3.055651865032966152e-01,9.794556917707891941e+00
2.344647485570325429e+00,3.090106201457974433e-01,9.904996514259561735e+00
2.415226341066344595e+00,3.107336254127692210e-01,9.960225558346635921e+00
2.450512285681055058e+00,3.079414387606428383e-01,9.870725077607737319e+00
2.519552064602030406e+00,3.094214141059352663e-01,9.918164064104043831e+00
2.607812499708318743e+00,3.131436106322756929e-01,1.003747499135112520e+01
2.696547502431348331e+00,3.167597193310316417e-01,1.015338538963925430e+01
2.743315832749849470e+00,3.153970725489863014e-01,1.010970724155503042e+01
2.785529414284140248e+00,3.135784559888219469e-01,1.005141348232855592e+01
2.852632911304013863e+00,3.145788455621528756e-01,1.008347987290137659e+01
2.994479230738265052e+00,3.236167609992890992e-01,1.037318033969688535e+01
3.011380656961289315e+00,3.190620757529850637e-01,1.022718489958254473e+01
3.070939083874537179e+00,3.191152537502600084e-01,1.022888946196099980e+01
3.105261530168020201e+00,3.165935184275378012e-01,1.014805800196242913e+01
3.261881990523721964e+00,3.264030370547600368e-01,1.046249136274257552e+01
3.293013381220403879e+00,3.235269860550953336e-01,1.037030270232349061e+01
3.362960777567081561e+00,3.244990883772598256e-01,1.040146237608486501e+01
3.352245057255478056e+00,3.177902797854902928e-01,1.018641887471601493e+01
3.543308515240019663e+00,3.301115199945145462e-01,1.058136271601233780e+01
-3.182660381991724741e+00,3.647993905452424634e-01,1.002278088153861546e+01
-3.208392799931500505e+00,3.745590275303450900e-01,1.029092470392505199e+01
-2.997668541815247334e+00,3.565613261335831008e-01,9.796441922028147786e+00
-3.025547478597728102e+00,3.667981397531867582e-01,1.007769606469841328e+01
-2.926365005797316954e+00,3.617302380894881209e-01,9.938456610848128037e+00
-2.836640902356703187e+00,3.576521598263118773e-01,9.826412331419673407e+00
-2.761748998061559490e+00,3.553158824314835429e-01,9.762223637540943244e+00
-2.789629514403021204e+00,3.663800245625891128e-01,1.006620844424943328e+01
-2.693326197305450975e+00,3.612580996180206339e-01,9.925484712956000877e+00
-2.643356392489803586e+00,3.622633384326921502e-01,9.953103422400694456e+00
-2.627231932590579078e+00,3.680547236443639791e-01,1.011222042336501126e+01
-2.573448638560886348e+00,3.687137419132175409e-01,1.013032680149184372e+01
-1.148591381080437124e-01,3.620445822557343818e-01,9.947093145835117056e+00
-5.663746174075056511e-02,3.570510194263623593e-01,9.809896134671841850e+00
0.000000000000000000e+00,3.559600817876714673e-01,9.779922869388478546e+00
5.559869918867401534e-02,3.505025051257293356e-01,9.629977182952192294e+00
1.093579764182871644e-01,3.447045097225792110e-01,9.470678568469626413e+00
1.620188360029189978e-01,3.404636482822969157e-01,9.354161858007511654e+00
2.147887115900012078e-01,3.385150308532724472e-01,9.300624034153507580e+00
2.618949964935873287e-01,3.302050360544979690e-01,9.072308803499325336e+00
3.164403674834910807e-01,3.324812245141641198e-01,9.134846567452884258e+00
3.621518683492772062e-01,3.261513538592255568e-01,8.960934800527763144e+00
4.126742340056632763e-01,3.251950021550406023e-01,8.934659253404712231e+00
4.563063360813311431e-01,3.196248118413814732e-01,8.781619532316279120e+00
5.217596002426873047e-01,3.289250461379768509e-01,9.037141369571610738e+00
5.580342063382779383e-01,3.198119088160553125e-01,8.786759979447925417e+00
6.235162171985159096e-01,3.275616146056609668e-01,8.999681396091508745e+00
6.751027452140253571e-01,3.273806579978619236e-01,8.994709654153218992e+00
7.312831541374301692e-01,3.292941602973282200e-01,9.047282697751800384e+00
7.871047186808671769e-01,3.308017150517869598e-01,9.088702424216467790e+00
8.283074863689398049e-01,3.263608830144301143e-01,8.966691566754182219e+00
8.919807291171234498e-01,3.307752801262685005e-01,9.087976130606998382e+00
9.449505177237101927e-01,3.309505123472838428e-01,9.092790596311004947e+00
9.887807257836388475e-01,3.280748105948131932e-01,9.013781340011012944e+00
1.051019201844133999e+00,3.312891025844872384e-01,9.102093286622645607e+00
1.115330385699778049e+00,3.348194934116059396e-01,9.199089977416228692e+00
1.179713138325331645e+00,3.380494478097406663e-01,9.287832245163661682e+00
1.240250975436390179e+00,3.399446704443753187e-01,9.339903059098642046e+00
1.302926128751789925e+00,3.422433728856471014e-01,9.403059389613035890e+00
1.357140984041095066e+00,3.422247798287353371e-01,9.402548549572799175e+00
1.424149231760463818e+00,3.453095961216097742e-01,9.487303180651181833e+00
1.475263532470596939e+00,3.444548772737339726e-01,9.463819973305971800e+00
1.492681482921971892e+00,3.360745374272547936e-01,9.233572028350398142e+00
1.576612471953659833e+00,3.427310531238283442e-01,9.416458294036209153e+00
1.664369410700914598e+00,3.497477797251184461e-01,9.609241272991519978e+00
1.731161953557798006e+00,3.520485019200487731e-01,9.672453095781611054e+00
1.746990336071722494e+00,3.441652514801072371e-01,9.455862570025161062e+00
1.804382341443996118e+00,3.446998734108512319e-01,9.470551186851803749e+00
1.905542532530462463e+00,3.533183758432515420e-01,9.707342595077150804e+00
1.945692195923022227e+00,3.504552644094565128e-01,9.628679254939807919e+00
2.031222973007513755e+00,3.556981402728652819e-01,9.772726085417000164e+00
2.040314082499229187e+00,3.476336422190891562e-01,9.551155822397143780e+00
2.152879064243991447e+00,3.571597690052148444e-01,9.812884004794565129e+00
2.217732333143271006e+00,3.584850235191006096e-01,9.849295073313880877e+00
2.280467358975134751e+00,3.594101722891870354e-01,9.874713326868366892e+00
2.344055881946428777e+00,3.604214253500988008e-01,9.902497276370461066e+00
2.401431863069164230e+00,3.604520284591877788e-01,9.903338089882332440e+00
2.449151582587818066e+00,3.590655217580165370e-01,9.865244131348427814e+00
2.502847917730141702e+00,3.585983443998513875e-01,9.852408538924034787e+00
2.626381882661472655e+00,3.679356382724711660e-01,1.010894857966238369e+01
2.663431967011165913e+00,3.650146301872681520e-01,1.002869454210098610e+01
2.768666528251475079e+00,3.713635613364649202e-01,1.020312999180188918e+01
2.825358093224505485e+00,3.710724891062197606e-01,1.019513284800160058e+01
2.858199457309621661e+00,3.677248233101444996e-01,1.010315648617562623e+01
2.900780943598179729e+00,3.657391278532849954e-01,1.004859995187927524e+01
3.016583251463582194e+00,3.728821851023257916e-01,1.024485383685538764e+01
3.114687908515098691e+00,3.776049587179464706e-01,1.037461097551652678e+01
3.165211794410605961e+00,3.764899618372355428e-01,1.034397668799137016e+01
3.234984197729606770e+00,3.776634005672574457e-01,1.037621665212985711e+01
3.361462051152624309e+00,3.852937984020898265e-01,1.058586010965643176e+01
3.449020960330883234e+00,3.882704170587945036e-01,1.066764203511266551e+01
3.498743854776185103e+00,3.869579633259125351e-01,1.063158266516094486e+01
3.577416518614213725e+00,3.888373816325064736e-01,1.068321925875170919e+01
-1.169929243244625383e-01,4.214519266107717987e-01,1.013188445280149530e+01
-5.691202960642761238e-02,4.100364985909311644e-01,9.857452684019680333e+00
0.000000000000000000e+00,4.120946380060669378e-01,9.906931235249961887e+00
5.510322517442443196e-02,3.970045290571899699e-01,9.544158566301153002e+00
1.107612870455941811e-01,3.990032567251056705e-01,9.592208833734481743e+00
1.623894309058568075e-01,3.899913258953097150e-01,9.375558164704656861e+00
2.132347144644382853e-01,3.840752838269912983e-01,9.233333984746233014e+00
2.638988734466026775e-01,3.802646674119499748e-01,9.141725137394102418e+00
3.112368502837749573e-01,3.737302090183988179e-01,8.984633964653436777e+00
3.654677234521421236e-01,3.761572445570341983e-01,9.042980936366314282e+00
4.179274146858917294e-01,3.763824075683843695e-01,9.048393951398399082e+00
4.512147989320643982e-01,3.612095867682374450e-01,8.683632854192341100e+00
5.054054831673784332e-01,3.641316187803020910e-01,8.753879752697963923e+00
5.697101455878014198e-01,3.731467908758238083e-01,8.970608343141218910e+00
6.107512250757802796e-01,3.666920912444949776e-01,8.815434605134885970e+00
6.652397245629303457e-01,3.686831295323744206e-01,8.863300016585546004e+00
7.330337361069527713e-01,3.772370754615311794e-01,9.068940532851993197e+00
7.852436096579702429e-01,3.771651822080324123e-01,9.067212188309252241e+00
8.329924872916696366e-01,3.750935052787280899e-01,9.017408189452151390e+00
9.196982780841285177e-01,3.897758205939624854e-01,9.370377325148945502e+00
9.473090476533573279e-01,3.791731903015446714e-01,9.115485561140564741e+00
1.010332845375062405e+00,3.831151388091878496e-01,9.210251688132835568e+00
1.070745214003726353e+00,3.857221588030483317e-01,9.272925563078322497e+00
1.130670912523054739e+00,3.879139229570057190e-01,9.325616510143792226e+00
1.181209449597306449e+00,3.868322504724503452e-01,9.299612641286380210e+00
1.229294371410333486e+00,3.850760423215823236e-01,9.257392646700624894e+00
1.293166194020064941e+00,3.882053744166172882e-01,9.332623127805103280e+00
1.339134163456114246e+00,3.859246541191891922e-01,9.277793637028942442e+00
1.419143319795989733e+00,3.932523728503330429e-01,9.453955127340851305e+00
1.471887003107060554e+00,3.927617160165354226e-01,9.442159527339700986e+00
1.548524449519895096e+00,3.984542633194245731e-01,9.579010797611021033e+00
1.573299487554912668e+00,3.908695563366050840e-01,9.396671199886853287e+00
1.659646074925914983e+00,3.985774010455998551e-01,9.581971081179830207e+00
1.705843760152348842e+00,3.964569174640834581e-01,9.530993749542600924e+00
1.796007263295725798e+00,4.043677885295055008e-01,9.721174471221660340e+00
1.859557799167400827e+00,4.059889229528013121e-01,9.760147235663335863e+00
1.855841852046583584e+00,3.932606475467965157e-01,9.454154054580605759e+00
1.941021031848427336e+00,3.995587441050540423e-01,9.605562987774982631e+00
2.042254140920157557e+00,4.087198469905230502e-01,9.825799816782341267e+00
2.114532059264589758e+00,4.117475204466056193e-01,9.898586380755444836e+00
2.138249600230983205e+00,4.054088690430905917e-01,9.746202491747116170e+00
2.245464025274531927e+00,4.148202387415019232e-01,9.972455841906706198e+00
2.265103537464129069e+00,4.079871733052848892e-01,9.808186028229663123e+00
2.322734528244869256e+00,4.081634966019430100e-01,9.812424915645467038e+00
2.379215659829513552e+00,4.081341750031040050e-01,9.811720011876733594e+00
2.502899076470840534e+00,4.193661040780600757e-01,1.008174038759236346e+01
2.542054980897483496e+00,4.162466061461475020e-01,1.000674632397266706e+01
2.616900544830688347e+00,4.189798591043937259e-01,1.007245489333650923e+01
2.701232239879030939e+00,4.230800386447358674e-01,1.017102496198600825e+01
2.707524626788701649e+00,4.150429106990397021e-01,9.977808970940413857e+00
2.786063348444790311e+00,4.181847508591159945e-01,1.005334015127468561e+01
2.917935070563911548e+00,4.290401999200607608e-01,1.031430978653830977e+01
2.963594654154372954e+00,4.270387064512697339e-01,1.026619302806977885e+01
3.031240076435247843e+00,4.282216303485628650e-01,1.029463102416630704e+01
3.082709635350895372e+00,4.271178470841822117e-01,1.026809560271130195e+01
3.151297347702017859e+00,4.283827326524162205e-01,1.029850399240932468e+01
3.286401768778564492e+00,4.384755064419029735e-01,1.054113858816426053e+01
3.312288631324540766e+00,4.338942821381595039e-01,1.043100399779433118e+01
3.382939978326366059e+00,4.352358974169829864e-01,1.046325700253075652e+01
3.519985594358389758e+00,4.449226066974442673e-01,1.069612963392853366e+01
3.561440432091682595e+00,4.424010344573179321e-01,1.063550995950491540e+01
-1.160640647546228588e-01,4.703690584837009747e-01,1.005144285439854990e+01
-5.638749270738863811e-02,4.570395136703935823e-01,9.766600228061667721e+00
0.000000000000000000e+00,4.620815273330362571e-01,9.874344373402609065e+00
5.646250547304296902e-02,4.576475172592681107e-01,9.779592820194624281e+00
1.110071141842894904e-01,4.498749194614712343e-01,9.613498088439460076e+00
1.636429025847154495e-01,4.421268442220212536e-01,9.447927385825716229e+00
2.204977851995504057e-01,4.468020995185887911e-01,9.547834173050754103e+00
2.658071474964097125e-01,4.308911908968606208e-01,9.207829689574722920e+00
3.129865031871142955e-01,4.228100722748038831e-01,9.035142093390005513e+00
3.645551620192423181e-01,4.221202406911818694e-01,9.020400896840452987e+00
4.142712117583213782e-01,4.197258648566808414e-01,8.969234835981724885e+00
4.612710745952282587e-01,4.154173942580288714e-01,8.877165969564766002e+00
5.190352870949569430e-01,4.206954837000023706e-01,8.989954881695641831e+00
5.714991329731786696e-01,4.211083526376144248e-01,8.998777589010067857e+00
6.196345660263241628e-01,4.185288071174931845e-01,8.943654587362379615e+00
6.647643006317471848e-01,4.144720999399952310e-01,8.856965721170595884e+00
7.346145596942404987e-01,4.253069316530643240e-01,9.088498152644747918e+00
7.866615381127624040e-01,4.250770156519120269e-01,9.083585015810569985e+00
8.393941788607749421e-01,4.252231843272963885e-01,9.086708533527625420e+00
8.980016464818005861e-01,4.281531825350172182e-01,9.149320452864612818e+00
9.457593844844579545e-01,4.258720313672093027e-01,9.100573920345276235e+00
1.012769995464396944e+00,4.320442110405157687e-01,9.232468886977036604e+00
1.062874308090664632e+00,4.307476122261245655e-01,9.204761518363236306e+00
1.116084339235280609e+00,4.307732080015442278e-01,9.205308481368783546e+00
1.172663236011984855e+00,4.320376488995273379e-01,9.232328658822233081e+00
1.230810341525748974e+00,4.337447843732392672e-01,9.268808895668692927e+00
1.290542145488674297e+00,4.358448465440182273e-01,9.313685688730540591e+00
1.335535362018511085e+00,4.329984562456501429e-01,9.252860409283821141e+00
1.384286023070506300e+00,4.315423785200003803e-01,9.221745092944537703e+00
1.489613735231402503e+00,4.471784527740831905e-01,9.555876566937936190e+00
1.515719257678733722e+00,4.387647224138299107e-01,9.376081301107680233e+00
1.591347605718023139e+00,4.447725971676699808e-01,9.504465191747247133e+00
1.665117974014289848e+00,4.498779620015525005e-01,9.613563105296346833e+00
1.726944192501493669e+00,4.515310021838155330e-01,9.648887365318048026e+00
1.784847449729669577e+00,4.520870737646536797e-01,9.660770208411017634e+00
1.827403840982251504e+00,4.488400049860912233e-01,9.591382722811445660e+00
1.931087626590775930e+00,4.603562344891480307e-01,9.837476126831823819e+00
1.946937426009776040e+00,4.508737115808758023e-01,9.634841545732296453e+00
2.009932573183403459e+00,4.525326853189711729e-01,9.670292601503627239e+00
2.111857156663337953e+00,4.626299880305264067e-01,9.886064577483372418e+00
2.169236581698081867e+00,4.626944477508070919e-01,9.887442034573982852e+00
2.248159784478605872e+00,4.672330257947444054e-01,9.984428128846262851e+00
2.341731257655117027e+00,4.745129033752965575e-01,1.013999378982707000e+01
2.388340141271018791e+00,4.721535791938493154e-01,1.008957675716496283e+01
2.435178078669442137e+00,4.699508075358504455e-01,1.004250513746055695e+01
2.478197879667153991e+00,4.671307863201651922e-01,9.982243346030170272e+00
2.554289930695166078e+00,4.705312584106618456e-01,1.005490894824003334e+01
2.614011668060767235e+00,4.708320011866276578e-01,1.006133560146471240e+01
2.703103426735066872e+00,4.762947520876178453e-01,1.017807059395363645e+01
2.753511375296489483e+00,4.748538702495994634e-01,1.014728000262207530e+01
2.857292454680930405e+00,4.824856730929289461e-01,1.031036604914701016e+01
2.939377268150089595e+00,4.862170859886072449e-01,1.039010361438563912e+01
2.994421420708474280e+00,4.854157701058702812e-01,1.037298007987931570e+01
3.016315617959301143e+00,4.793774177805382175e-01,1.024394490582161765e+01
3.085550954855845074e+00,4.809504596274211119e-01,1.027755965990959020e+01
3.238431167882786177e+00,4.952560232035929655e-01,1.058325909356151584e+01
3.291142805728947351e+00,4.939965686795314559e-01,1.055634547127282374e+01
3.330565344250892235e+00,4.908245015781135256e-01,1.048856071667395184e+01
3.422374107827900414e+00,4.953480065025553380e-01,1.058522470940380700e+01
3.526316524748869252e+00,5.014381836077399512e-01,1.071536734111360722e+01
3.555935880598708465e+00,4.969319183604690160e-01,1.061907174767955198e+01
-1.167233587403484346e-01,5.256010641845509923e-01,1.010853938841861499e+01
-5.779854331500987319e-02,5.205295015929793934e-01,1.001100136250675909e+01
0.000000000000000000e+00,5.192809833406061282e-01,9.986989432563550650e+00
5.579274063688931251e-02,5.024653877165174976e-01,9.663586147660506498e+00
1.120587189951414014e-01,5.045963600655385406e-01,9.704569736533429136e+00
1.630727050405123002e-01,4.895403298518366531e-01,9.415007015262021994e+00
2.151869293864570321e-01,4.844894813887448137e-01,9.317867370551997652e+00
2.617516833354486261e-01,4.714633464900539472e-01,9.067344290073537039e+00
3.120154391559423201e-01,4.683314137866276261e-01,9.007109889400130243e+00
3.596629416140867397e-01,4.627283491990384356e-01,8.899349835361100247e+00
4.077630038660786105e-01,4.590355158556079229e-01,8.828328001786909240e+00
4.660589621151435824e-01,4.663659234850111024e-01,8.969308907847191037e+00
5.253717700533230284e-01,4.731460170655529818e-01,9.099705985947487363e+00
5.768567435332342397e-01,4.722845562597821623e-01,9.083138077166283963e+00
6.246411666459102952e-01,4.687894315037394732e-01,9.015918642748454559e+00
6.797830947588018313e-01,4.709290304024250640e-01,9.057068140374255449e+00
7.285438354975315445e-01,4.686580785971429797e-01,9.013392418734479605e+00
7.843349244054664826e-01,4.709109075149996437e-01,9.056719594806418527e+00
8.474644913916216105e-01,4.770127455003591588e-01,9.174072229380039190e+00
9.025291752468549422e-01,4.781242640584459358e-01,9.195449334357576276e+00
9.597194661250826320e-01,4.801757840624762963e-01,9.234904868564006719e+00
1.013073799087708116e+00,4.801931251395631373e-01,9.235238378088082456e+00
1.082280286957390647e+00,4.873469001488979213e-01,9.372822225202124713e+00
1.139787787192345636e+00,4.888022091256065682e-01,9.400811225064980903e+00
1.177467965930940608e+00,4.820086980293437628e-01,9.270156096714405436e+00
1.253711271881035261e+00,4.909057850765574660e-01,9.441267917042399205e+00
1.302541231258690813e+00,4.887746724977563573e-01,9.400281631222396683e+00
1.347354773749855239e+00,4.853671865234023275e-01,9.334747695820874824e+00
1.424346291217833516e+00,4.933676808471555986e-01,9.488615938313783360e+00
1.471224133065476725e+00,4.907310428109898370e-01,9.437907214040299309e+00
1.535730479625410982e+00,4.939527731593526538e-01,9.499868633726189060e+00
1.622667024872522124e+00,5.039179961531518037e-01,9.691523209813240669e+00
1.659442549446054294e+00,4.981606534485203963e-01,9.580796026273985078e+00
1.717210672183521636e+00,4.988733915976451549e-01,9.594503650068913814e+00
1.806459904193610022e+00,5.084014771643733388e-01,9.777751049685434737e+00
1.860545217378348548e+00,5.077556269336094275e-01,9.765329837207820773e+00
1.927362769095726902e+00,5.105202861145702320e-01,9.818500707913063508e+00
1.993140779255681672e+00,5.128594780253245000e-01,9.863488846595041437e+00
2.051940103005479354e+00,5.133228941307514948e-01,9.872401423593348824e+00
2.088002374975117537e+00,5.082269838472162071e-01,9.774395134544288766e+00
2.156142704922127340e+00,5.110017180662419500e-01,9.827759771826617197e+00
2.178061973388435213e+00,5.029607341873995052e-01,9.673112820365389553e+00
2.310241681141452563e+00,5.201467380803321827e-01,1.000363992375083377e+01
2.380270500188978566e+00,5.228425366747114778e-01,1.005548644410901460e+01
2.415403970935602107e+00,5.179274643012307111e-01,9.960958091581149532e+00
2.543074620723132728e+00,5.326220032692134954e-01,1.024356848960795041e+01
2.545834879814274476e+00,5.210819280534636500e-01,1.002162581708938660e+01
2.628347393108278141e+00,5.260157013882407195e-01,1.011651383289943773e+01
2.704124587483691666e+00,5.294163151184730909e-01,1.018191559895214304e+01
2.756385557474526404e+00,5.281661491939512176e-01,1.015787198041477524e+01
2.846601299502601989e+00,5.340892804412669115e-01,1.027178766589603676e+01
2.901598289255597152e+00,5.332976402852847020e-01,1.025656257172577490e+01
3.049085742252020115e+00,5.491969142123812597e-01,1.056234284442872351e+01
3.089355712933757658e+00,5.455394932273522901e-01,1.049200207344007829e+01
3.091790973927673214e+00,5.354701142117054280e-01,1.029834433312613839e+01
3.236553676438931326e+00,5.499654409398172517e-01,1.057712341323786909e+01
3.259395487438265793e+00,5.435903716285863663e-01,1.045451590037741418e+01
3.317506703141073654e+00,5.432222813536604633e-01,1.044743666234665547e+01
3.414197539101127887e+00,5.490717169864962610e-01,1.055993500857104195e+01
3.509644573663172284e+00,5.545193902208239711e-01,1.066470652297022070e+01
-1.171769287576898133e-01,5.804078209308112246e-01,1.014781970415987367e+01
-5.828716264951034481e-02,5.774229691853385305e-01,1.009563271379828997e+01
0.000000000000000000e+00,5.608872740926725831e-01,9.806523493639557998e+00
5.670611499504497888e-02,5.617602882524114216e-01,9.821787227126128172e+00
1.104829516998295236e-01,5.472508105986167992e-01,9.568104285714150947e+00
1.628013302984412103e-01,5.375982363590463553e-01,9.399339187223420211e+00
2.149186390352725018e-01,5.322739735644929082e-01,9.306250057566195721e+00
2.704398695856957135e-01,5.358236201040401658e-01,9.368311890294522826e+00
3.194160800114679288e-01,5.273836551706893028e-01,9.220747988905802828e+00
3.662721888635898648e-01,5.183547045595930935e-01,9.062886293017161421e+00
4.123893136828715167e-01,5.106678965464019893e-01,8.928490547464909000e+00
4.683080116976831575e-01,5.154780998000577652e-01,9.012591887243859290e+00
5.091686341459845666e-01,5.044089490382623886e-01,8.819059439612948026e+00
5.700798105480407996e-01,5.134097550443449398e-01,8.976429056713151056e+00
6.351441085688570576e-01,5.243390087392387766e-01,9.167515551410863495e+00
6.822738311041515180e-01,5.199199742548942238e-01,9.090253385746594361e+00
7.364092346558610558e-01,5.210895105759157930e-01,9.110701497049022990e+00
7.913295984904744618e-01,5.226215237275180225e-01,9.137487134123880139e+00
8.428069296585340986e-01,5.218302556385220337e-01,9.123652644623188479e+00
8.958304961686254231e-01,5.220331256804453535e-01,9.127199613727622562e+00
9.512420341982928962e-01,5.235277039793845288e-01,9.153330741814526661e+00
1.020566450855044716e+00,5.321190749173375645e-01,9.303541817795702329e+00
1.069233231266463191e+00,5.296190439583023934e-01,9.259831408472788183e+00
1.140157836628722166e+00,5.378569968149137237e-01,9.403863341375059193e+00
1.184607999598231931e+00,5.334246991773158308e-01,9.326369283439408520e+00
1.235805360814018039e+00,5.322839603541262843e-01,9.306424666068991769e+00
1.314808686497116907e+00,5.427157979258019349e-01,9.488814363524609163e+00
1.377039846524283018e+00,5.456669364043947867e-01,9.540411912907629244e+00
1.393865287470666736e+00,5.310905763480118225e-01,9.285559603099205361e+00
1.468011558093759827e+00,5.386254271040176178e-01,9.417298535987937314e+00
1.536212693938730833e+00,5.435186599738488500e-01,9.502851561193356389e+00
1.570157426374300114e+00,5.363722988123552637e-01,9.377904959868541113e+00
1.643539195457535129e+00,5.427251554058075689e-01,9.488977969211090269e+00
1.731128315668614803e+00,5.532083249478122466e-01,9.672265152126369614e+00
1.786448181225982257e+00,5.530464204131663175e-01,9.669434421788796641e+00
1.837561324730902390e+00,5.516314804542338246e-01,9.644695686234834753e+00
1.905480889803584876e+00,5.551966298774456687e-01,9.707028570562830083e+00
2.002553368836895054e+00,5.668095975776413775e-01,9.910069084839198794e+00
2.026231147390030518e+00,5.575805642454861877e-01,9.748709153216985612e+00
2.072905772089352894e+00,5.550076604664361257e-01,9.703724639355543857e+00
2.148495910490151761e+00,5.601083865709414189e-01,9.792905465323414660e+00
2.218149154638213716e+00,5.634394866093809240e-01,9.851146242562412780e+00
2.296502004226437244e+00,5.687586021274833037e-01,9.944145377509865824e+00
2.379095694064173205e+00,5.748429308078228939e-01,1.005052345899387767e+01
2.438599638484748588e+00,5.751913620431714502e-01,1.005661541232066902e+01
2.482271461670070067e+00,5.718761166420039954e-01,9.998651836722842745e+00
2.611156623365389340e+00,5.878971933314376397e-01,1.027876349588374083e+01
2.669762369533735136e+00,5.877345673314511298e-01,1.027592015148423599e+01
2.703936674006898411e+00,5.823174777454930284e-01,1.018120804310598437e+01
2.776985889375902516e+00,5.853248409092643989e-01,1.023378862191682970e+01
2.854578437071288555e+00,5.891445767461204186e-01,1.030057268166256002e+01
2.963858470169425718e+00,5.992147870872424065e-01,1.047663970770777730e+01
2.964039039355790273e+00,5.872662675922711850e-01,1.026773242356375171e+01
3.054227828729299876e+00,5.932700091482615568e-01,1.037270152401945644e+01
3.141014480632570383e+00,5.983946963281085996e-01,1.046230128416380900e+01
3.171325834841220104e+00,5.927698916909076576e-01,1.036395749679392431e+01
3.279186983586815707e+00,6.015802395595224450e-01,1.051799715387202916e+01
3.339344765262161285e+00,6.014779496553963600e-01,1.051620872258768991e+01
3.438874437266000061e+00,6.083442850510925037e-01,1.063625936820454498e+01
3.490095281033358532e+00,6.065736894646082122e-01,1.060530236843185392e+01
-1.184982688149890800e-01,6.403121040928949625e-01,1.026225110982578848e+01
-5.774351388160466059e-02,6.240406925939945282e-01,1.000146998504980367e+01
0.000000000000000000e+00,6.160871436922247257e-01,9.873998841645649449e+00
5.634903767562595561e-02,6.089704303448172373e-01,9.759939621179704261e+00
1.105570046307991633e-01,5.974010334942584377e-01,9.574517457658590303e+00
1.663600214803687971e-01,5.992905294807699956e-01,9.604800318408285520e+00
2.162110201026423706e-01,5.841542437474085414e-01,9.362211799351813468e+00
2.679962310489821808e-01,5.792531226253094800e-01,9.283661768276100901e+00
3.117465036568256020e-01,5.615132938123723605e-01,8.999346390259646000e+00
3.604360337916606150e-01,5.564675754241729111e-01,8.918478905796700218e+00
4.192966642974405578e-01,5.664233158009345237e-01,9.078039075091480115e+00
4.711945373941269777e-01,5.658058574621651626e-01,9.068143100172679993e+00
5.223197450994898627e-01,5.644768625541538576e-01,9.046843363087415213e+00
5.733418927970611589e-01,5.632882502500273780e-01,9.027793531201986355e+00
6.235474322470997421e-01,5.615623085138810033e-01,9.000131946509073444e+00
6.892107434786787223e-01,5.729521954961434016e-01,9.182677114056859935e+00
7.358047137998057208e-01,5.679946324547100467e-01,9.103222491071003120e+00
7.949866868670082409e-01,5.727674092166585851e-01,9.179715553296720287e+00
8.550777002812548488e-01,5.775575952557160386e-01,9.256487633164287132e+00
9.094793780977201703e-01,5.781674479968397229e-01,9.266261713537627287e+00
9.662406111733955472e-01,5.801262049250400787e-01,9.297654616048474097e+00
1.014332985894239814e+00,5.769479698722681515e-01,9.246717196641414560e+00
1.087507893770446099e+00,5.876410471152003767e-01,9.418094628213150799e+00
1.103018961595963132e+00,5.676405146929900392e-01,9.097547062838440723e+00
1.179425614035189751e+00,5.793720978497383101e-01,9.285568578441225185e+00
1.265809219042183020e+00,5.947714588211927556e-01,9.532373391609318958e+00
1.289776495504717291e+00,5.807816926391818901e-01,9.308160085926258986e+00
1.350751147510063754e+00,5.839088236594781600e-01,9.358278463477574860e+00
1.473785718146495283e+00,6.125911202725015103e-01,9.817968243458134125e+00
1.502364090879732217e+00,6.013414384085969955e-01,9.637670136558233125e+00
1.558710006157556061e+00,6.016126972596553824e-01,9.642017589038875514e+00
1.613031971514658602e+00,6.011110052948723803e-01,9.633976996194423492e+00
1.659534889868473195e+00,5.978260485849055117e-01,9.581329153951390509e+00
1.729855924734357897e+00,6.030564143071771577e-01,9.665155972303070442e+00
1.797255285387573620e+00,6.069731676709873014e-01,9.727929588946812700e+00
1.831703659023251163e+00,5.998614799942096898e-01,9.613950914660877700e+00
1.938180740931407131e+00,6.160629035288208710e-01,9.873610345719672665e+00
1.964277970723322886e+00,6.065192696351392465e-01,9.720654987088819254e+00
2.029310241568499595e+00,6.091940431001957590e-01,9.763523451990314683e+00
2.084755443806931119e+00,6.089240035147109875e-01,9.759195540620023479e+00
2.174936468300008752e+00,6.185469650681783005e-01,9.913422279815874205e+00
2.248639083953321016e+00,6.231101842312612993e-01,9.986556772544334493e+00
2.303693692516747049e+00,6.224069643346311631e-01,9.975286301287402679e+00
2.384996347345235357e+00,6.286567212122665671e-01,1.007545085236131222e+01
2.412050510051367169e+00,6.206500706977773341e-01,9.947128651979506131e+00
2.502329977418512819e+00,6.289061254683600000e-01,1.007944804230591984e+01
2.559250060643998737e+00,6.285932995317937699e-01,1.007443439615712855e+01
2.644151989200153263e+00,6.350144429871863450e-01,1.017734575161995458e+01
2.704890107565133928e+00,6.354794273203641097e-01,1.018479803302882303e+01
2.780690022443303988e+00,6.393879131778151814e-01,1.024743914674818157e+01
